-0.7428901188165418 0.2552418000384218 -0.45239360477004603 0 0 0
-0.5471652463144753 -0.038158080551125684 -0.48790834937414457 0 0 0
-0.6280785401390603 0.061063942968241344 -0.42050059517518606 0 0 0
-0.6451203853192233 0.06273869030329461 -0.41607905300077375 0 0 0
-0.6394765742837725 0.0727419665510034 -0.4075354897984167 0 0 0
-0.6154412535811102 0.10179880898804038 -0.38253820328067206 0 0 0
-0.6962688565720273 0.14495886777536798 -0.2312340888601929 0 0 0
-0.6688346067475768 0.12685403849202337 -0.07210751775598018 0 0 0
-0.6915856861826188 0.10569176424420444 -0.05006651695624864 0 0 0
-0.6843668892305474 0.07847158057183867 -0.05784742652774666 0 0 0
-0.7496227723610623 0.08481208852520601 0.053510529567772705 0 0 0
-0.6957982838677329 0.2920736142905599 -0.06880762387414792 0 0 0
-0.787247522993193 0.3740090877124943 0.025817914231795823 0 0 0
-0.8160068709105337 0.39974255204081033 0.013819455135806402 0 0 0
-0.8156366399439917 0.401183453934518 0.012042175391317106 0 0 0
-0.841079708122957 0.3156589260881899 -0.0681939843653511 0 0 0
-0.8354106807587537 0.3355045656622042 -0.11282709560455198 0 0 0
-0.9107588173813381 0.29393583257546396 -0.11863780484100306 0 0 0
-0.9103147509819308 0.2917410578665118 -0.12077289459447438 0 0 0
-0.9171852932228562 0.31430455272108065 -0.14547627229423427 0 0 0
-0.8342151404207399 0.24798424577069828 -0.23252316167420178 0 0 0
-0.85802869764099 0.3017318635910949 -0.357099609571409 0 0 0
-0.7543157206668969 0.3941507992299942 -0.30900165608853847 0 0 0
-0.6453691807069449 0.40161081394599246 -0.21734870438119114 0 0 0
-0.6688296072082514 0.5703987214386488 -0.32842698547304233 0 0 0
-0.7373675546080026 0.5675677063226376 -0.3035871453956095 0 0 0
-0.896466063320763 0.5999965157386539 -0.2931570321028087 0 0 0
-0.8939048026325184 0.6112879814096851 -0.28830219360928155 0 0 0
-0.9028998872864515 0.6208826011992129 -0.2884167414644203 0 0 0
-1.026221901857106 0.676488797587018 -0.20093340789702813 0 0 0
-0.8425636672067823 0.6510918382202252 -0.2374700832995983 0 0 0
-0.7671777995777079 0.7130712627855377 -0.3843412409866509 0 0 0
-0.7890795192003973 0.7228846704585286 -0.41561701078498114 0 0 0
-0.7155192317870349 0.7197320891298592 -0.4486836137372046 0 0 0
-0.7002170753298151 0.7414763186542699 -0.47170771074151663 0 0 0
-0.6588241937394786 0.7255337806911668 -0.4566692114163881 0 0 0
-0.6469718861810217 0.614834607284793 -0.4728148500424827 0 0 0
-0.7185988293032466 0.6147748161041242 -0.49538673262769806 0 0 0
-0.7780265664904893 0.5915993548677819 -0.4129417118133336 0 0 0
-0.8293286252779358 0.6415016471886416 -0.5330727384468581 0 0 0
-0.7072248621801459 0.9232922928902543 -0.868167842831338 0 0 0
-0.7080316650138949 0.8991173825618184 -0.9562109993925271 0 0 0
-0.57343110966726 0.8260669339644899 -0.9801176164504966 0 0 0
-0.6120837369085345 0.7807454698336378 -0.9795515459516596 0 0 0
-0.6033868713113151 0.85865022015096 -0.8499440731193846 0 0 0
-0.5520421416090179 0.7168785568770304 -0.6845731950763959 0 0 0
-0.5200102335950012 0.7022848041822127 -0.5918620966800343 0 0 0
-0.4757388646905034 0.7044574943244795 -0.5658071380555221 0 0 0
-0.46182615281111067 0.7168084865562825 -0.5418799473969987 0 0 0
-0.4668206392491297 0.7269363094677761 -0.5400985047882905 0 0 0
-0.3591187454827599 0.7469388232188022 -0.5274929876717127 0 0 0
-0.23192120385580123 0.7382490737636981 -0.637599743161615 0 0 0
-0.27196939789641794 0.6668165073280653 -0.6092012004916607 0 0 0
-0.36273916284167546 0.6210455307994103 -0.5063811453573799 0 0 0
-0.31045494908835575 0.6394605930814443 -0.48237330833664543 0 0 0
-0.20548012043671232 0.39757248068427553 -0.446001360227442 0 0 0
-0.1634392189520975 0.3186723451972505 -0.46598343790425123 0 0 0
-0.12856407325202923 0.32967376417362204 -0.45331106733889537 0 0 0
-0.11874220383191175 0.33516165071357595 -0.4605710889893579 0 0 0
-0.1594155571253043 0.3952947838028199 -0.4098637934703362 0 0 0
0.18428863563331432 0.5490645622115545 -0.47786855976077175 0 0 0
0.24345366777527366 0.6695276894179408 -0.457897168950852 0 0 0
0.25351723633929035 0.6638904930204383 -0.4511020717835534 0 0 0
0.2911052647982717 0.7402086904481605 -0.3725770611485829 0 0 0
0.11568438654931038 0.6841961212652735 -0.34978289546308283 0 0 0
0.1012547416274075 1.0720824440205294 -0.8186131087423512 0 0 0
0.062165417562157564 1.030566550921403 -0.8395443759967022 0 0 0
0.008923634525891178 0.9816634694205242 -0.9354646025091835 0 0 0
-0.050216157929705865 0.9251790885044313 -0.906581489559234 0 0 0
0.0735520781223089 0.9066947644698329 -1.085574351636162 0 0 0
-0.03588762010045227 0.8884936425970799 -1.0309993066335787 0 0 0
-0.10926884197905151 0.8146946370301448 -0.9927916358885731 0 0 0
-0.07710886264080372 0.6843628546459046 -1.071909209658395 0 0 0
0.0035463320270687493 0.7272907651067618 -0.9518431304570838 0 0 0
-0.05847095232357047 0.7416417148431584 -0.925197973531506 0 0 0
0.13305145939103374 0.6187972386691413 -0.7280627853508952 0 0 0
0.20884409671334883 0.5690486312342738 -0.6731170671916595 0 0 0
0.24260390670610632 0.5428470527816593 -0.6357301403222604 0 0 0
0.23281852538810544 0.5165135157446271 -0.6332326518883538 0 0 0
0.2656500450591219 0.4887984488203847 -0.6346171842572166 0 0 0
0.36543510473137236 0.20462632027460492 -0.733404951828902 0 0 0
0.3487960183218215 0.18960182833179265 -0.7932232379898662 0 0 0
0.33953626792693925 0.17348947456140618 -0.7751744280830911 0 0 0
0.3342089432133548 0.16780353516695945 -0.7727065308394028 0 0 0
0.3276348219401003 0.0152462487182137 -0.8732682851612283 0 0 0
0.5784851628963066 0.009989152845893592 -0.7426666999029804 0 0 0
0.7826626773082681 0.029472240127685304 -0.7801018001715958 0 0 0
0.7075100969596083 0.06520442158552966 -0.7058859640714866 0 0 0
0.6987027284958223 0.07500346109628853 -0.7046532962780405 0 0 0
0.680452389198449 0.0501605424682673 -0.6829350325714344 0 0 0
0.33917458973016845 0.14943488184562598 -0.6064383578394719 0 0 0
0.2723685035959992 0.2215909138700318 -0.44540441584919144 0 0 0
0.41450439740889045 0.22700308950664116 -0.45718233582015655 0 0 0
0.43971657051967394 0.2688828427717561 -0.5048636330702947 0 0 0
0.44253014057758583 0.34248529392574845 -0.5724370068746422 0 0 0
0.46819607717771694 0.3447486223079041 -0.5732525904536397 0 0 0
0.4736496518558193 0.34576569383474975 -0.5688820507182801 0 0 0
0.5006599542487558 0.3236395739061976 -0.5552675889871672 0 0 0
0.5359537885297974 0.4067915572751853 -0.6269279182204079 0 0 0
0.5801607500640713 0.415849267705942 -0.6574043642029386 0 0 0
0.8028046523162284 0.4729051933297437 -0.8130242731090572 0 0 0
0.80118655691554 0.370061007720634 -0.7934267388257263 0 0 0
0.8591400937340024 0.3698261105784678 -0.711871914063537 0 0 0
0.9077716647648016 0.3186924076535568 -0.6557948538300298 0 0 0
0.9204555702862034 0.39860019044600764 -0.790687678065736 0 0 0
0.850570404955355 0.7963142193488317 -0.8895311394237664 0 0 0
0.9139833859292708 0.8164720653819593 -0.9096574371703052 0 0 0
0.9002634868602173 0.8786717902907898 -0.8782093561108205 0 0 0
0.8717049173126831 0.9026409222720081 -0.766040356829275 0 0 0
0.8199595069847485 0.9577446365069583 -0.7296484007320956 0 0 0
0.7719826653406934 0.9736349485112725 -0.7500608095835538 0 0 0
0.835509390758865 0.8254356459772876 -0.7287192202678888 0 0 0
0.8921987643185812 0.869466130602376 -0.7674773452718442 0 0 0
0.9528537023116528 0.8439500407151241 -0.8046000906137731 0 0 0
0.9871468662425122 0.823239979712789 -0.8082478696005946 0 0 0
1.0322052447726122 0.7887278303715165 -0.6522475436911969 0 0 0
1.0095791542604873 0.8815474281733173 -0.4577939816097989 0 0 0
0.954603949155203 0.8485183216930081 -0.49008873282331855 0 0 0
0.933563371454434 0.9126003724255054 -0.528114530370061 0 0 0
0.8032148265397071 0.7964003602834853 -0.4281020209750118 0 0 0
0.8557186508484719 0.7481198569123639 -0.4233016453273052 0 0 0
0.8759089164975485 0.7069085047317127 -0.49773090174126366 0 0 0
0.9524544593516273 0.6410457346461514 -0.5058636176463402 0 0 0
0.9606463068794114 0.6398836651322918 -0.5057758916417707 0 0 0
1.0589251287674772 0.4858574809649667 -0.5567091084824062 0 0 0
0.9913819519435065 0.4707360961824993 -0.4615406960567187 0 0 0
0.9935831167023341 0.46871061988323093 -0.4623938788337696 0 0 0
1.0066606806151928 0.444355611958966 -0.4255095127311984 0 0 0
1.0677766402022086 0.570698118733475 -0.3698682698095569 0 0 0
0.8615614551936523 0.5321628526440251 -0.36913106563339826 0 0 0
0.9021766357335422 0.33332675839068376 -0.2704238354992492 0 0 0
0.8855672142312441 0.3657809472381526 -0.23926961517703488 0 0 0
0.7788517350545745 0.34912664943343164 -0.19447847630453133 0 0 0
0.8536898029398323 0.2863399384394384 -0.17370378461056982 0 0 0
0.830129433241668 0.25544423053044707 -0.19830450639648434 0 0 0
0.9886727431056256 0.38620496117384157 0.21469820851351512 0 0 0
0.8983117847163801 0.34145534567642694 0.31496440423205047 0 0 0
0.9036582876857615 0.3521264246697844 0.3166855394586514 0 0 0
0.884104846127506 0.3563535536649061 0.32408381538682 0 0 0
0.7691902392605512 0.34558576611720626 0.2533908042482393 0 0 0
0.6754338610386119 0.5335710165306431 0.552710299484562 0 0 0
0.808468758090372 0.5526829235189886 0.4898980268007165 0 0 0
0.8314661623978712 0.5335151933492739 0.5199944486118416 0 0 0
0.8352075006945443 0.6146643532730564 0.5797204262156446 0 0 0
0.9045758655585246 0.7023276935699818 0.5065092569421568 0 0 0
0.962092743912766 0.644143244342323 0.4556520971133271 0 0 0
0.8709516570552683 0.7522138867653906 0.37666409615776864 0 0 0
0.7719704555075636 0.6925066171759466 0.4325465748064031 0 0 0
0.7286752046711924 0.720550861100674 0.4078500892517733 0 0 0
0.7774343582274219 0.7459835238966596 0.38114168454886665 0 0 0
0.6040216671614804 0.9051815782229814 0.13433413932474092 0 0 0
0.6095191464004234 0.8860504985284767 0.16962522311961867 0 0 0
0.5771208236466487 0.9050073709547254 0.20259443982476055 0 0 0
0.5429532126129517 0.8770236381053226 0.2270752304391276 0 0 0
0.48677358002471055 0.8178857457428171 0.2975311081086356 0 0 0
0.3384613179582325 0.9700037859302212 0.1975441750600515 0 0 0
0.2829130129472289 0.9122968173274055 0.15516551423418942 0 0 0
0.27484761383541323 0.9143664198206228 0.15039436485120916 0 0 0
0.25857092826111716 0.9848374786963361 0.13444123510519035 0 0 0
0.23821326865643344 0.9358437050583823 0.03140483329832265 0 0 0
0.14279357386761002 0.9585418726289041 0.333302261883808 0 0 0
0.2376089521885714 0.7330085337213512 0.5245849423188371 0 0 0
0.22266459156089485 0.8220061575551263 0.41506261067761574 0 0 0
0.1661108813186547 0.8192768110695503 0.36523619658775175 0 0 0
0.14548172481349864 0.8352976028894262 0.3322709243481959 0 0 0
-0.07615654120257452 0.8579669487881436 0.12222836236135362 0 0 0
-0.15596180166091922 0.8489349350847814 0.1255966279695402 0 0 0
-0.24271179883375305 0.8481175098752839 0.04412807936749852 0 0 0
-0.2462145886057946 0.8573511451259187 0.0463414454051867 0 0 0
-0.2666451049190594 0.863551415818597 0.04009602692885843 0 0 0
-0.26760434909858866 0.7620966526453906 0.04026692229010303 0 0 0
-0.26742113621559926 0.7139282007842445 0.09209466412077022 0 0 0
-0.16400099872872081 0.7648235284759267 0.20173159084724632 0 0 0
-0.26324146245728997 0.7919141535238683 0.21102183767571348 0 0 0
-0.2167128600639141 0.9087405586340158 0.2191959462515102 0 0 0
-0.27930188015511026 0.9918304127038106 0.20807786202942222 0 0 0
-0.27131073921436943 0.987916764628538 0.20161135833640031 0 0 0
-0.302032392322241 0.957840372116485 0.18250588211093294 0 0 0
-0.3827313294077944 0.9383777231952157 0.2104268885511124 0 0 0
-0.3381252181201841 0.9424790426137261 0.2860378206148406 0 0 0
-0.6391113288002155 0.7569110946136645 0.1507891239351345 0 0 0
-0.5283516335487675 0.6178341131145411 0.1210927307356977 0 0 0
-0.5355995109176762 0.6110422595059604 0.12441872385858128 0 0 0
-0.5275704665454113 0.5978678309110328 0.1380933973315987 0 0 0
-0.5141416883080975 0.6162115344300491 0.1302381912659348 0 0 0
-0.4184163209375547 0.5428104682584307 0.14901280547651743 0 0 0
-0.4102840570264654 0.5118481799010156 0.16385917470731026 0 0 0
-0.4202574845141158 0.5114769646563387 0.15367546843963686 0 0 0
-0.42301975666471114 0.5101396868914961 0.15059560029932406 0 0 0
-0.41612184653665446 0.47402144940665275 -0.04554650153733275 0 0 0
-0.3871438296749317 0.22513655505047747 0.06284460589243301 0 0 0
-0.31295946997391155 0.2636146818102618 -0.05463519243161668 0 0 0
-0.30920189220518735 0.2634449184720703 -0.04970179308641298 0 0 0
-0.2515449802746403 0.21084558200997963 -0.05912504065597922 0 0 0
-0.2756906655945576 0.20222420493812857 0.015378452785654584 0 0 0
-0.1152568661956807 0.19576748389440693 0.040097525530543604 0 0 0
-0.18956078138622096 0.1459713429448099 0.09363442349353168 0 0 0
-0.12151649019636523 0.21143006370359452 0.1788029666333384 0 0 0
-0.12246886089802693 0.2214763376306056 0.20062214789737415 0 0 0
-0.17118688289062675 0.3412182112440896 0.15559392819443382 0 0 0
0.13654633690079235 0.1908044270031679 0.7894433941773121 0 0 0
0.09381379361870024 0.17970129988905686 0.8487816096627908 0 0 0
0.06005628808835661 0.1467696828013143 0.8369366296850986 0 0 0
0.013885432300353287 0.10090822228973151 0.8606091622503653 0 0 0
0.06973573939225367 0.13864073746078623 0.7216632857434169 0 0 0
-0.11749442954985401 0.1906263949381803 0.678807929477688 0 0 0
-0.185516999643897 0.1467351949574422 0.7102274653660174 0 0 0
-0.17910017569853864 0.15151019665862864 0.7144819734473484 0 0 0
-0.1801680678302298 0.18317506889271398 0.7287297031440294 0 0 0
-0.15582576213216748 0.19009735029997615 0.7420964618154159 0 0 0
-0.25789475617131136 0.2444562547327007 0.7573588053902973 0 0 0
-0.4006836666677946 0.27075974649577694 0.6959115062634298 0 0 0
-0.40957863320456434 0.2682277801974665 0.6916535832373758 0 0 0
-0.5247725340089328 0.4162047692716121 0.6291209836151426 0 0 0
-0.3691436447563923 0.48505426115345496 0.6184843339614906 0 0 0
-0.3200652618750917 0.43601437916414054 0.6696926524141409 0 0 0
-0.346012107127713 0.4613926516411756 0.7011651529003625 0 0 0
-0.3651400422497731 0.47978444915549806 0.7341737227660925 0 0 0
-0.25531048291155906 0.4251343690395936 0.754830941965031 0 0 0
-0.2645359167707726 0.5353339302380473 0.669779624357363 0 0 0
-0.2815179550127893 0.7416875737592588 0.7212584735900971 0 0 0
-0.5108710125678798 0.7367434863475897 0.599910456848639 0 0 0
-0.41593149702925225 0.8563449132309897 0.6355960521447035 0 0 0
-0.40875698320634885 0.857104816737037 0.647989621213939 0 0 0
-0.43978944315108137 0.9571269719774103 0.6871611887752089 0 0 0
-0.4469710466966702 0.9401673229539177 0.9337649951267839 0 0 0
-0.5621766925492628 0.8563634071759082 0.989331776655103 0 0 0
-0.5801633386920484 0.8642148649925592 0.9884815459873879 0 0 0
-0.5870703547757795 0.9337251262744861 1.0580749858872827 0 0 0
-0.5607430076573781 0.8439637203359129 1.0593182292586403 0 0 0
-0.8780343062912409 0.4113039586144614 0.6957088696567394 0 0 0
-1.0020450145008004 0.4610608358325949 0.6877776854414128 0 0 0
-1.0539945427083612 0.41681836335294004 0.5330836086427617 0 0 0
-0.9166587031195468 0.3812605257573398 0.6108888355952411 0 0 0
-0.9313642788962997 0.36412565351043136 0.6171331641333438 0 0 0
-0.9518717135638675 0.2755508820209401 0.5376029746521358 0 0 0
-0.9872050038012778 0.24352649249342984 0.552695590563399 0 0 0
-0.9568469795678214 0.21823542948083427 0.5711144489334784 0 0 0
-1.0626632244884118 0.16696425676885723 0.5611601155431668 0 0 0
-0.9584517146230909 0.1003319410068357 0.5085781434357319 0 0 0
-0.946333776688441 0.09477957430253925 0.5158188758270208 0 0 0
-0.827017091182036 0.031194478115413635 0.5832445262715417 0 0 0
-0.8099215163708995 0.13419135911424945 0.6353934220838945 0 0 0
-0.833707086317313 0.15822354775046438 0.6383382424256119 0 0 0
-0.8176129909221528 0.24354655882369297 0.6216029392062703 0 0 0
-0.8238992863452299 0.20580189786122144 0.8085683793807068 0 0 0
-0.6810264310841447 0.10696517852880011 0.9176924998427785 0 0 0
-0.713919925877394 0.05614616224839686 0.8970235109013798 0 0 0
-0.7115587726851049 0.05967064850562487 0.8816608888326647 0 0 0
-0.829750368196285 -0.06918200732088803 0.945466925188849 0 0 0
