-0.9584461924432592 0.47358001486702206 -0.6428262593838906 0 0 0
-0.9640347911815201 0.4902091056436336 -0.681201824803414 0 0 0
-0.9530750114085067 0.46248200049790134 -0.7092278848068614 0 0 0
-1.0236057856810168 0.5554046819589511 -0.7181584671516674 0 0 0
-1.037050028536946 0.5598018836887179 -0.7562693444701533 0 0 0
-0.8935132180923488 0.5609901813140327 -0.8467021233729429 0 0 0
-0.9262600271226061 0.6100952487010952 -1.0518269756181988 0 0 0
-0.957560017354481 0.7022978548448284 -1.0250344106166838 0 0 0
-0.9335024401983809 0.6960684234156838 -0.974052212953896 0 0 0
-0.8462398126560156 0.8592328220197689 -0.9942857857255887 0 0 0
-0.716069362787474 0.7828935704265996 -0.8871293397972192 0 0 0
-0.6194454336505475 0.6135540047846321 -0.8670366905352402 0 0 0
-0.6773288273375546 0.5793259270297051 -0.8248140084249072 0 0 0
-0.7376142635371374 0.6753244813208492 -0.7667185099572922 0 0 0
-0.735003565604022 0.7119168196304675 -0.7194811480973666 0 0 0
-0.4390341016173307 0.7343040493820572 -0.4321232010047695 0 0 0
-0.34829478291798244 0.6885652941158155 -0.561704456261401 0 0 0
-0.36797300597951593 0.6698961961982103 -0.5777830618563033 0 0 0
-0.3951340184588934 0.6830862999625228 -0.5594840409488324 0 0 0
-0.46290331367048515 0.7083967872881965 -0.6279713165815625 0 0 0
-0.40545024745406777 0.35220129736293293 -0.813952482180963 0 0 0
-0.3773547811243092 0.3415393508619958 -0.8804510362791778 0 0 0
-0.3428636043715714 0.35998107801562057 -0.9444989082274633 0 0 0
-0.32102716298293626 0.4022139762333298 -0.9994657187751003 0 0 0
-0.3564386625391102 0.4445784611754543 -0.9135132914184266 0 0 0
-0.1358506492829173 0.5730192774939391 -0.8975832387609288 0 0 0
-0.1226782451837175 0.5348725586580222 -0.8663456076548387 0 0 0
-0.0038147765233751685 0.544311383777252 -0.8193123654440009 0 0 0
-0.05085130044093265 0.48701503086200415 -0.870413571797147 0 0 0
-0.05079265525741761 0.4871709485586676 -0.8703010706210179 0 0 0
-0.04153257985531938 0.2676127586245146 -0.7767504410188819 0 0 0
-0.007765568907956988 0.2795077652717165 -0.7547643796284711 0 0 0
0.037316105669248506 0.28869492741740493 -0.7677859651440923 0 0 0
0.026820047721145726 0.2696472322203105 -0.7899737453383874 0 0 0
0.0492283632821131 0.3814539405557765 -0.7013082072629948 0 0 0
0.13030221692002336 0.4183585646889987 -0.772840036248895 0 0 0
0.2537115020562974 0.4145327159919295 -0.8549516984264743 0 0 0
0.1935927469344397 0.3431705405632806 -0.8778257190114637 0 0 0
0.19543089591405938 0.3151520300196742 -0.8718915571734589 0 0 0
0.15223409207377825 0.3078391844820139 -0.9702500277234618 0 0 0
0.2456179113750693 0.18755863096135783 -0.9327502081311382 0 0 0
0.25901630377558227 0.16292326944522875 -0.932131116895438 0 0 0
0.2648523069745652 0.16400795624175168 -0.9282015307559184 0 0 0
0.2910866016108893 0.17847614046073842 -0.908980376506435 0 0 0
0.384407451350996 0.1073738951510961 -1.0361645929927044 0 0 0
0.1262591484023615 0.0007923358197596889 -0.6032635806279448 0 0 0
0.11352160245034061 0.056008203705868724 -0.5480316381996182 0 0 0
0.11302668762519108 0.05796395912842822 -0.545958341263258 0 0 0
0.11636934376266218 0.06113572458806366 -0.5472195095942328 0 0 0
0.14979169828558486 0.06330830408642772 -0.5220765818578333 0 0 0
-0.028039207488653684 0.10768582365179379 -0.43784020627566844 0 0 0
0.03442104980620842 0.06756038490576673 -0.3787570056788098 0 0 0
0.029172701039679914 0.04292155523411908 -0.3682911191697648 0 0 0
0.04337986953030515 0.04289595721710848 -0.36726000574778084 0 0 0
-0.00406199889058264 0.08976326487665012 -0.302708288759295 0 0 0
-0.2002802394014621 -0.120005168747358 -0.01200869612469209 0 0 0
-0.2565021755386949 0.05669836469571632 -0.06784883432218058 0 0 0
-0.2576072312034933 0.056563650892503425 -0.061791866702931374 0 0 0
-0.24955827277484063 0.07209608533810886 -0.0576161673142612 0 0 0
-0.27002239786662874 0.2480688604458661 -0.048693009060039094 0 0 0
-0.4335780179148442 0.2939479426113265 0.13593571310684477 0 0 0
-0.4923869091959555 0.3765927624152181 0.004058457432764104 0 0 0
-0.5219488882773705 0.35651420515833643 0.029979008612309253 0 0 0
-0.5324645351143868 0.3611747148558353 0.04313313331752955 0 0 0
-0.5473389789347344 0.32061905915367717 0.004426515948690327 0 0 0
-0.3834713205749757 0.20453682675363258 -0.03587015692512775 0 0 0
-0.3197728233900724 0.19886782151283805 -0.16075043854142324 0 0 0
-0.384076503875257 0.25792204578037453 -0.18317159117362514 0 0 0
-0.3953342222681302 0.2519960291492568 -0.15810439510888785 0 0 0
-0.39137325333208317 0.2975925239734202 -0.1002569216533859 0 0 0
-0.452227743293329 0.3342480378709046 -0.14846622839287713 0 0 0
-0.41605310920194594 0.3283765641406971 -0.24743655108153284 0 0 0
-0.5913835632922396 0.3149055401451153 -0.17918928760447195 0 0 0
-0.568946333705806 0.3060627707875505 -0.17825654782929412 0 0 0
-0.6019407810463195 0.24843730365527086 -0.18375156882983767 0 0 0
-0.7557289846630488 0.09922600472642118 -0.27614145287657954 0 0 0
-0.6537109106551946 0.005636414952861754 -0.23471084141445453 0 0 0
-0.8394151708246127 -0.06013201961065895 -0.3498691258664888 0 0 0
-0.7533886022017138 0.11485244446284679 -0.3107024281223349 0 0 0
-0.8515320928811797 0.26638459889632893 -0.273111373765486 0 0 0
-1.0157213882972662 0.29755491565382786 -0.08785708806535616 0 0 0
-0.8675474411352814 0.4074656406687024 -0.05891340215049861 0 0 0
-0.8700051268742721 0.41143417250627257 -0.045830693037596924 0 0 0
-0.8695895106783764 0.42691102091915467 -0.051767663315437806 0 0 0
-0.8306279450077722 0.5000861126383105 -0.12830881578925188 0 0 0
-0.9635679120726164 0.570895277642359 -0.22379634846082433 0 0 0
-0.9645292571065274 0.5707192075207024 -0.22248999289354865 0 0 0
-1.058498844619195 0.6249473671463867 -0.09658235522987088 0 0 0
-1.0286429385726654 0.6918049255575287 -0.14064051124519486 0 0 0
-0.9179134479510438 0.7152059152940012 -0.11917938630440503 0 0 0
-0.9248015075790647 0.9150624000381257 -0.09994655965759966 0 0 0
-0.8912066131650005 0.8756050915724584 -0.05993478740083658 0 0 0
-0.8707535389020724 0.9043362039251788 -0.07067134036020106 0 0 0
-0.7940023780892231 0.9629137376830732 -0.09282386521953634 0 0 0
-0.7943959716705091 0.9634850604298708 -0.09284510276140125 0 0 0
-0.8012401825461034 0.974566499608718 -0.17686462308457565 0 0 0
-0.8242867168306341 1.0396384681882362 -0.1428312475928335 0 0 0
-0.7892240159736171 1.0259822354985482 -0.10999400643248754 0 0 0
-0.9013462299960093 0.9904435517850687 -0.05520146895066835 0 0 0
-0.8530048643365601 0.9379231122579165 0.05659162907228171 0 0 0
-0.6964745904999691 0.6570833057606917 0.2320622057830548 0 0 0
-0.7879604901800485 0.6326272816632142 0.2816668111126066 0 0 0
-0.7915787199079429 0.6289491417106227 0.27288027966248385 0 0 0
-0.8100514237763816 0.6134251700243929 0.2792866786702449 0 0 0
-0.9180420454961693 0.5764641807817434 0.34563376494697584 0 0 0
-0.9922674714585588 0.8276060909571819 0.3632686387518999 0 0 0
-0.9266283487734814 0.8869128689599909 0.43115978472976924 0 0 0
-0.8621167968617363 0.9723730231371754 0.4058071720238813 0 0 0
-0.839527853992662 0.9387037730704815 0.4606470793850707 0 0 0
-0.8568402239395663 0.9167563261679057 0.5220982928404979 0 0 0
-0.6091989475068185 0.7854835903169446 0.6453480411269009 0 0 0
-0.5898442965387491 0.7978977548377094 0.6774827438415547 0 0 0
-0.6043514637464846 0.8207092859077433 0.7128362874612668 0 0 0
-0.5420138838969455 0.8927820216681518 0.7717924004520286 0 0 0
-0.6812052155860651 0.6959520384969148 0.7834596636153882 0 0 0
-0.5475513409017168 0.48370958064440417 0.8622712804297622 0 0 0
-0.5251500786427497 0.5006295474688114 0.853427366176386 0 0 0
-0.4419642111146895 0.49354727936583714 0.829585547943013 0 0 0
-0.48449197151790546 0.4421318623656122 0.7970025911846392 0 0 0
-0.4751030074453679 0.39809185528743307 0.7324090913060388 0 0 0
-0.6792112502497603 0.4263443959605172 0.6806418814285602 0 0 0
-0.7378445642173963 0.37986452240936697 0.6657886325079218 0 0 0
-0.7800132778473792 0.328602505128495 0.6001656479889761 0 0 0
-0.8399270246044256 0.27552337766700247 0.6539054304151765 0 0 0
-0.8797322860539946 0.23231505687049156 0.5996452726465961 0 0 0
-0.8213896449648466 0.12871329559267414 0.46663293809351575 0 0 0
-0.8160226425912689 0.12581119244127936 0.4699528297004152 0 0 0
-0.811533161814586 0.11575773489028131 0.4748499292546376 0 0 0
-0.6945574865560233 0.10622667928654002 0.42614252804408603 0 0 0
-0.8474157985593203 0.05312681571137849 0.36972287671898485 0 0 0
-0.7799910266236889 0.15012848403573073 0.9314969815088303 0 0 0
-0.6988504649306093 0.021517776543471756 0.9033538733907973 0 0 0
-0.6479941580887064 -0.01977560618423512 0.9204617627656589 0 0 0
-0.6117554976001747 -0.1049690138887488 0.8906060728509473 0 0 0
-0.5224861135001267 0.1065947619827337 0.893975426465551 0 0 0
-0.289609073095874 0.37780224765719894 0.6176885678829905 0 0 0
-0.28823966362019426 0.38089558125848255 0.6108403688774429 0 0 0
-0.25129946970045774 0.3594272279349444 0.5799108570307294 0 0 0
-0.2584412864764879 0.3443509957713 0.5777242889947868 0 0 0
-0.2183796169878683 0.40955121950968254 0.561208243235299 0 0 0
-0.27338895192013757 0.5486700353333164 0.6131970296575318 0 0 0
-0.29131309963223895 0.601144474884166 0.6195990842396092 0 0 0
-0.23322032986735686 0.6175244903760626 0.5673655762157362 0 0 0
-0.25753749653222346 0.6302920285154106 0.5305354781780263 0 0 0
-0.19401272204826336 0.6799580067681297 0.5049023188079365 0 0 0
-0.09847013303629885 0.8613281522175538 0.7586751641338033 0 0 0
-0.19621814547966648 0.9567489665333622 0.7414475630594848 0 0 0
-0.27313554575783083 0.9225073475792932 0.7820482679153865 0 0 0
-0.2989901907432677 0.8939728507534035 0.8648057995467371 0 0 0
-0.29718915913025734 0.8100941932002356 0.9518798636948499 0 0 0
-0.18759512769454667 0.8565538349424806 0.9541951647032632 0 0 0
-0.03145852942765581 0.8287236550940759 0.8794316731825802 0 0 0
0.019225787469205932 0.7985005806057509 0.9624684428195455 0 0 0
0.0277786991680693 0.8978387614940926 0.9583354930391972 0 0 0
0.07589614427220337 0.8601502711646243 1.0454584078671092 0 0 0
0.06321272816068504 1.0462596526799695 0.8537647980991967 0 0 0
0.0437861401990501 0.9003687308166198 0.8280296111609466 0 0 0
0.055164936723681036 0.8890839324965023 0.7055260553039232 0 0 0
0.017714262013919235 0.8160188872560079 0.8276144124012232 0 0 0
-0.009776554000900033 0.7215346006246866 0.8393309204237543 0 0 0
0.06819064308113096 0.45473568433162703 0.9555063025744115 0 0 0
0.1488450047399532 0.2905177369442826 0.8859368141859524 0 0 0
0.14711980860776863 0.3736688033590564 0.8759864937686237 0 0 0
0.14492058191712398 0.378149570672366 0.8786673577835635 0 0 0
0.1165067105863278 0.40544508120786865 0.8374569634373333 0 0 0
0.16757891227939956 0.6224453462222935 0.7442177027454552 0 0 0
0.1961564636315496 0.6024788127519763 0.8296929854472512 0 0 0
0.20663224716569206 0.6196803143676787 0.8374939654949404 0 0 0
0.17486056613285353 0.6598519950872572 0.8830585294955166 0 0 0
0.3075275994165945 0.6746117380842779 0.8570203744719601 0 0 0
0.7369484086898723 0.7815433606756979 0.85930659872709 0 0 0
0.6602109936653223 0.8596721574264917 0.71675155880376 0 0 0
0.6387253959097272 0.8802153051539077 0.7307793200818502 0 0 0
0.5251439618723999 0.9439161080059264 0.61634106640121 0 0 0
0.6978353085709111 0.849020422780982 0.5825616913589284 0 0 0
0.8433522548355781 0.8085140514756829 0.413863347952217 0 0 0
0.7781823007281319 0.8077049002390652 0.33420284093520586 0 0 0
0.7615719230886704 0.7487528702371126 0.2808038741876831 0 0 0
0.7739677738671467 0.716236290906808 0.3184667829425687 0 0 0
0.8848731794097386 0.6193837903720892 0.0797547434582742 0 0 0
0.8186096906328186 0.6450508828405261 -0.0838331325129861 0 0 0
0.7496985300760706 0.5963793098560901 -0.04508685811694102 0 0 0
0.7363702865428016 0.46494259556921735 -0.09904784344120418 0 0 0
0.8398243485328072 0.3799394561799453 -0.10593659610582348 0 0 0
0.9659008577055126 0.4189000636335549 -0.11680708484140956 0 0 0
1.0113665712084465 0.5070526389072718 -0.027124130930466936 0 0 0
1.0111048969838246 0.3588699774767547 -0.2695732766750015 0 0 0
1.0134969275333539 0.2749445195511723 -0.21753184686691246 0 0 0
0.8458017878566231 0.49209714106529795 -0.779952173038305 0 0 0
0.7766689920388411 0.5265146107176516 -0.671838940678815 0 0 0
0.7996614874087544 0.5584541796457283 -0.7092154616042736 0 0 0
0.8179822117120024 0.5933264701097215 -0.6909800633605756 0 0 0
0.8401082117382148 0.6174045380850106 -0.7261616521790227 0 0 0
0.8203500124648584 0.8259614095231411 -0.583291508256722 0 0 0
0.8416235604684589 0.7892915223972825 -0.546042928500599 0 0 0
0.8279367383577383 0.8263220917976638 -0.5072453430580384 0 0 0
0.8338050150359606 0.8281860391334549 -0.5091518118464154 0 0 0
0.8734507809951573 0.8458564370086257 -0.5275867587432179 0 0 0
0.6744485008973627 1.0672902204806405 -0.7541092045125165 0 0 0
0.6353586038424404 0.9742659852565438 -0.8910150091121285 0 0 0
0.6351238893996752 0.9537569658675011 -0.8770050962167056 0 0 0
0.5937420328359784 0.9736955230173395 -0.8601545160397825 0 0 0
0.4410403620187313 0.9330282481371451 -0.7548699050732355 0 0 0
0.3025978209528658 0.9526524506604989 -0.7734418228578981 0 0 0
0.2616027383560935 0.9733779905809705 -0.7682032793050113 0 0 0
0.2535841612970129 0.9626246271844067 -0.7193993847325291 0 0 0
0.24733610853989382 0.9622202917636964 -0.718409441050708 0 0 0
0.2988451794139489 0.9859104343506452 -0.633283504073695 0 0 0
0.1661778760634466 0.6307731131137679 -0.3437211182025566 0 0 0
0.34138930809750895 0.6198945113743385 -0.24923813960424426 0 0 0
0.3315109534126839 0.6136556981721251 -0.2818696444507931 0 0 0
0.37629249397713177 0.6403550125652653 -0.2990841387514504 0 0 0
0.434336709319318 0.5312202417861419 -0.3908542008663334 0 0 0
0.5390768168814263 0.159797044055944 -0.08640100154339328 0 0 0
0.5326063679071698 0.17492290397887197 -0.0825580898665922 0 0 0
0.528025326574123 0.17579203504528107 -0.0720916308536046 0 0 0
0.5162240622720132 0.268247391303605 -0.027043049152565064 0 0 0
0.6137660878789802 0.2625712736483674 0.01564152777773402 0 0 0
0.5922941506187945 0.5829135171061971 -0.08459675091642388 0 0 0
0.7129685039014204 0.7895883976354078 -0.032722439713647605 0 0 0
0.6907549115960381 0.7252929266163192 0.0720977418341417 0 0 0
0.6900078702497874 0.7246388110574271 0.07331677988790952 0 0 0
0.6875846305376623 0.7294385281456788 0.07354324571509298 0 0 0
0.6569042209091438 0.7988383686979631 0.11291854684183139 0 0 0
0.6361276558655551 0.6373770695286608 0.31405392833135426 0 0 0
0.2322062205137236 0.9737455571605229 0.0588065484240998 0 0 0
0.22466140866282575 0.9740066123522544 0.00734227425460849 0 0 0
0.2502122446370011 0.8928029493028312 -0.10790787907875395 0 0 0
0.17285455076555786 0.8728399831011969 -0.07972739775163087 0 0 0
0.12966643597030458 0.8672545501594282 -0.04265581717382583 0 0 0
-0.135780453972134 0.8625263782742945 0.1710864865485643 0 0 0
-0.17895897660944127 0.8220485101845741 0.0653438596521636 0 0 0
-0.11068009261311482 0.8477407888693124 -0.017203157946081626 0 0 0
-0.18536851050437542 0.7481991381286305 -0.058510472107421094 0 0 0
-0.2889039085293549 0.7308183981974875 -0.030296007225829383 0 0 0
-0.1276016977163153 0.4861124400317675 -0.2170369394828758 0 0 0
-0.06700053956045203 0.49949904951234536 -0.2876817025674524 0 0 0
-0.0104830469640501 0.4584878322490019 -0.20333275559465505 0 0 0
-0.05789932840831272 0.48051957381797655 -0.2098251323643357 0 0 0
-0.06430699631341508 0.4297121993040991 -0.16823853393363453 0 0 0
-0.035938916666092474 0.4247396947973457 -0.08734429815453412 0 0 0
-0.06902905715937524 0.4226637934723253 -0.057466707544112414 0 0 0
-0.03250752532551937 0.41062231470016686 -0.04341011075470025 0 0 0
0.10091979433044015 0.35719831209498853 0.05816130417700428 0 0 0
-0.041574304281533456 0.3023423160256901 0.09411071176463234 0 0 0
-0.07132620592932096 0.28019490549685155 0.09835226085651336 0 0 0
-0.06975467102582855 0.27497014041081624 0.10114915262218171 0 0 0
-0.17608063875052093 0.29792255713693283 0.03602409796296316 0 0 0
-0.14636144081598518 0.19228977290375712 -0.04697507582964863 0 0 0
0.012947817682538887 0.1818439732253116 0.1835184458544098 0 0 0
