-0.5657892506915625 0.8474733206623195 -1.0861274736650426 0 0 0
-0.5088691097489911 0.7405440340503943 -0.9712645770537163 0 0 0
-0.5376852050664669 0.7285234879614224 -0.9717871027337082 0 0 0
-0.5914246569613261 0.7053567832148557 -0.9218922425767497 0 0 0
-0.5910044892405066 0.6909527826909733 -0.8663125903235307 0 0 0
-0.6128183193650669 0.07890818271244382 -0.7722025025254563 0 0 0
-0.638235897482758 -0.05687780224512995 -0.8562870682046082 0 0 0
-0.657685111625392 -0.09030348937000465 -0.8716743466929429 0 0 0
-0.6470725012515726 -0.11136272381410008 -0.8581185709531014 0 0 0
-0.7309797276944207 -0.1648319017209342 -0.833824044326979 0 0 0
-0.8822340707584406 -0.39085914004318345 -0.4040757451472631 0 0 0
-0.8707688676982985 -0.4247158383228166 -0.4741434215608286 0 0 0
-0.8256442429441766 -0.4463391723419534 -0.4529928537162715 0 0 0
-0.8327713633600373 -0.4508110104058477 -0.43563690195072635 0 0 0
-0.8063580504128627 -0.4700334171226363 -0.43020217802229005 0 0 0
-0.23666020111564318 -0.37017960214340756 -1.0782843079945301 0 0 0
-0.06877869881368213 -0.3499253216560051 -1.019251818586991 0 0 0
-0.10257428695478366 -0.3280202772943659 -0.9688521951559654 0 0 0
-0.14975853498666034 -0.3068050004562608 -0.9556678358766586 0 0 0
-0.15181445289220777 -0.3866092134323413 -0.8942267827263759 0 0 0
-0.39529078077143837 0.24504632968087134 -0.5141504902106121 0 0 0
-0.25108751706241256 0.3116312613799129 -0.46534505663618864 0 0 0
-0.31776364318644823 0.3103050888285818 -0.42492442808853076 0 0 0
-0.296419251074169 0.29200549718482915 -0.41490433084341594 0 0 0
-0.27268939268588527 0.2593334442902845 -0.39399671930825175 0 0 0
-0.2648336417956971 0.012249149857169711 -0.23903498464006445 0 0 0
-0.3787322656296544 -0.0993298987460725 -0.11228769798909485 0 0 0
-0.24001457012190583 -0.11679512579485937 -0.022830556094547663 0 0 0
-0.33030338332073783 -0.008780192488766048 0.026553591411376587 0 0 0
-0.3613583209586561 -0.0489046158293159 0.05045271690423561 0 0 0
-0.25894066788981374 -0.047864619385936356 0.19965961057705936 0 0 0
-0.4479352522662684 -0.20572094047526535 0.32379005436277586 0 0 0
-0.441848754147606 -0.22223844928238085 0.32805114572914174 0 0 0
-0.44339765399155007 -0.22451848287659026 0.3260444734263004 0 0 0
-0.4912042945595134 -0.2217314961093603 0.3229517804245113 0 0 0
-0.48064171777477227 -0.30177471839575737 0.2507780038020321 0 0 0
-0.39864692365008014 -0.24742915890295522 0.09751254830652084 0 0 0
-0.5194163788844812 -0.30570042259389074 0.055462980568195354 0 0 0
-0.5189345261148133 -0.29167098978630834 0.047232989990030116 0 0 0
-0.5209328786559518 -0.273098868930769 0.03665385449262475 0 0 0
-0.5389368786429645 -0.29447320782016223 0.01298475237490665 0 0 0
-0.4703336680133802 -0.4757677013912204 0.05314339991357062 0 0 0
-0.42111090373682647 -0.4674166361255413 0.08921460002504991 0 0 0
-0.38249308720692365 -0.5409943490363078 0.055813109367509384 0 0 0
-0.3830823332979609 -0.56008064992194 0.03267156376113912 0 0 0
-0.43377251088839425 -0.6370880083569034 -0.01024826517282905 0 0 0
-0.48374150010487105 -0.5919169110629215 -0.009426009359719822 0 0 0
-0.44147083978664803 -0.7349379661532924 -0.07922617575563584 0 0 0
-0.4387838894560597 -0.7373950375883709 -0.07560769717787699 0 0 0
-0.4663202049314705 -0.7883349963562754 -0.061301852531886886 0 0 0
-0.3348371268687207 -0.7521944408024891 -0.15648896097637705 0 0 0
-0.18910979585306903 -0.9260569318718082 -0.10344502306757009 0 0 0
-0.09199116544190544 -0.8505681241742622 -0.18522083655575838 0 0 0
-0.11619519151914165 -0.8649071912233974 -0.2438012438689522 0 0 0
-0.05567828101727768 -0.9096363888555926 -0.22823410527121266 0 0 0
-0.0989391040247612 -0.9657886240948838 -0.30720150666296897 0 0 0
0.07520185807090037 -0.6778507690177343 -0.4538954494366652 0 0 0
0.03842787347844089 -0.7049924438528997 -0.4192861173067375 0 0 0
0.05424416961176741 -0.6756761566979331 -0.3917180223028199 0 0 0
0.08405532332653887 -0.6800952920858017 -0.37036620814150134 0 0 0
0.04392290841920631 -0.6380367312925108 -0.23960486172412707 0 0 0
-0.2003653423776279 -0.5451179107882094 -0.13912812552453185 0 0 0
-0.1245971407052254 -0.450497367988084 -0.10058347448655333 0 0 0
-0.17608875474167185 -0.43572033559815826 -0.036580765947965554 0 0 0
-0.17686798607060786 -0.43448465010141285 -0.036407629034686764 0 0 0
-0.04308953670958951 -0.4355065182773001 0.09536668198366186 0 0 0
0.059980741283784625 -0.1564271103616615 0.22223698265182434 0 0 0
0.13628352347773467 -0.17732024340023134 0.1871871741776327 0 0 0
0.13566157052036854 -0.17537334540851202 0.18685748928225565 0 0 0
0.1598186405967739 -0.13730805994951836 0.17523474129606736 0 0 0
0.08150852412316371 -0.0777992743600255 0.05519619692980471 0 0 0
0.15611470371886843 -0.2477768543271791 -0.11953655029233179 0 0 0
0.277531649632077 -0.22010129170669224 -0.04904503086826595 0 0 0
0.27606414859454526 -0.22138343415876838 -0.06257935454016543 0 0 0
0.28637319445459 -0.23152461181822323 -0.057785558072966176 0 0 0
0.40476114528312623 -0.2632007594333204 -0.1352155351076135 0 0 0
0.34091353169311595 -0.4515399118521433 -0.024228901654997283 0 0 0
0.359209893216192 -0.5024454582067368 -0.06215251774260211 0 0 0
0.36097341657138665 -0.5081943959202828 -0.04989463291100095 0 0 0
0.37969028918500264 -0.5016366376299446 -0.044938727932008815 0 0 0
0.44953294268165034 -0.42943689105030625 -0.013218244016525493 0 0 0
0.7728526317826587 -0.6941713193423118 -0.041319665735191524 0 0 0
0.779823615159061 -0.6897223264582667 -0.04576459010934705 0 0 0
0.8747727173564138 -0.6883194301342013 -0.1103034322490085 0 0 0
0.8415371818135018 -0.681011281817427 0.05616761722899945 0 0 0
0.9080964135651706 -0.7455585653311344 0.13289317770106124 0 0 0
0.8427449176671913 -0.8324470931024783 0.045031848687103526 0 0 0
0.8244520952552428 -0.8186344246414099 0.08697509229419462 0 0 0
0.7982771708609313 -0.8988966002003856 0.08732842617970185 0 0 0
0.6804661533417722 -0.8952028127878229 -0.03886939690204075 0 0 0
0.7120464570834701 -0.8604624553779526 -0.09308197335194218 0 0 0
0.6444098172895816 -0.6622754001220078 -0.3360622025278042 0 0 0
0.8276140189595365 -0.6560195799441735 -0.3931886030141434 0 0 0
0.7861168820206941 -0.7353132928119395 -0.3633808351471022 0 0 0
0.7426987388139628 -0.8158987942056 -0.34311155364870966 0 0 0
0.8425582610359508 -0.8267374066175144 -0.45116609471231384 0 0 0
0.5340548598442891 -0.9169545271679617 -0.5994036231801533 0 0 0
0.49433051932978467 -0.961204024875079 -0.5610346953187346 0 0 0
0.5121348743044575 -0.9713430918525465 -0.5379221109966629 0 0 0
0.5319375944011683 -0.9691009544156294 -0.5072409116915534 0 0 0
0.5093561084962066 -1.091773105024006 -0.5915723691199827 0 0 0
0.6005234793297057 -0.9542114516245189 -0.7162333041717798 0 0 0
0.5293488334481268 -0.9884220909971141 -0.7502707206575139 0 0 0
0.536456244875263 -0.950442693395547 -0.808265727736108 0 0 0
0.5582013518543258 -0.9421312010953449 -0.8158549045299419 0 0 0
0.5106577712767109 -0.8391181016607447 -0.8371536168376089 0 0 0
0.5317786133636797 -0.19713306613068055 -0.8575668097668503 0 0 0
0.717318028063134 -0.06433320522932377 -0.8224328770609072 0 0 0
0.6364441580441832 -0.05125679228099894 -0.765222862500358 0 0 0
0.5898293044982583 -0.03764698610366923 -0.7553443109847451 0 0 0
0.43319164041693536 0.0028428057403613455 -0.724803939580536 0 0 0
0.3046144062237382 0.33939730752953645 -0.3472820695103754 0 0 0
0.20391558230161627 0.19644165268417302 -0.3475621743663636 0 0 0
0.23448775116082832 0.1718249520991859 -0.34505387791291886 0 0 0
0.2552542610950137 0.1391774856134175 -0.3218367968478411 0 0 0
0.14801464959459587 0.08679188772182421 -0.2575328365397812 0 0 0
-0.1670197036020721 0.13049712744850264 -0.22989178483729666 0 0 0
-0.15551996255936684 0.08209561565693546 -0.16789752924320434 0 0 0
-0.18620243819303586 0.14800069460573329 -0.12523673380722602 0 0 0
-0.1995634244054467 0.1535921424595092 -0.11772065099737515 0 0 0
-0.41350574136269164 0.2868681161478581 -0.1750833826791434 0 0 0
-0.4290661287532394 0.33125289296187344 -0.17502010416548586 0 0 0
-0.456288572258051 0.33310657657771703 -0.18050092341796695 0 0 0
-0.4557319156294142 0.33830420952980855 -0.19781920412527865 0 0 0
-0.5210927750285612 0.35689452228352975 -0.17216561213023301 0 0 0
-0.5154233210484955 0.4057074678872693 -0.20754736774566268 0 0 0
-0.6847511839220738 0.3755237180640157 -0.21116477247377713 0 0 0
-0.659309570400556 0.3476729535601635 -0.16027518536730234 0 0 0
-0.6818533289038724 0.328732311439092 -0.16545785422972947 0 0 0
-0.6944109271131408 0.2550573574186239 -0.07543405243186875 0 0 0
-0.6829499056195787 0.19302259780100073 0.02288423822445318 0 0 0
-0.6421974311878608 0.13249373088623004 -0.02381802968407362 0 0 0
-0.6234675140557793 0.20851378688527128 0.176688702748441 0 0 0
-0.7514303590314695 0.3261389149019659 0.011636704346973073 0 0 0
-0.7273110190979115 0.3108902480023247 0.15104103945717512 0 0 0
-0.7040483344554095 0.43582404916749473 0.1508114237929496 0 0 0
-0.7041354824086383 0.4365191990450824 0.15620936919031192 0 0 0
-0.6797336239953907 0.4545633798238496 0.1787311693948696 0 0 0
-0.7069156709053701 0.45456357068493375 0.16603156287667642 0 0 0
-0.7141607663814431 0.45035525598620696 0.1611199637538232 0 0 0
-0.9110054738614399 0.5268657778478947 0.18942396449188983 0 0 0
-0.9732992511649807 0.42612752157393485 0.06298971692777511 0 0 0
-0.9807001342097047 0.3866688043012002 0.013605753336820382 0 0 0
-1.0574535751217347 0.4024834122903136 -0.08454403243617109 0 0 0
-1.0935331449562085 0.3401905992130086 -0.05061940675364829 0 0 0
-0.839941981858497 0.7336908732885378 -0.1804950257504498 0 0 0
-0.7415624042736977 0.8258040022824731 -0.26151023829357545 0 0 0
-0.7373349196293656 0.8265586727223209 -0.26770421535307865 0 0 0
-0.7594171867718384 0.8549132195841177 -0.33090813561470184 0 0 0
-0.7566270107376252 0.9085196722383885 -0.3252541948369385 0 0 0
-0.6665973108581069 0.8603301956045677 -0.13998810704731812 0 0 0
-0.6671101829687708 0.8514723658976596 -0.13380168995485334 0 0 0
-0.4981362715835771 0.7765078674071028 -0.19157667267944725 0 0 0
-0.4936828590951939 0.8600551103036186 -0.07860688566584531 0 0 0
-0.6079281300309903 0.9772835323688616 -0.05207410168308875 0 0 0
-0.4016511281491971 0.9271391994118322 0.468014113916713 0 0 0
-0.4857630743330298 0.8201941169002341 0.5924835820762944 0 0 0
-0.4121921585283328 0.8470702044303386 0.6225936739736306 0 0 0
-0.4209004434564893 0.9002978958164167 0.6647868844676371 0 0 0
-0.34437241775870664 0.7206426208045649 0.7449650158516236 0 0 0
-0.5368572914027447 0.23380114891405324 0.9281575939262385 0 0 0
-0.4812317612801542 0.2570906897752501 0.9252867083050642 0 0 0
-0.47952303330089135 0.16244437727503774 0.9823971552051962 0 0 0
-0.47779410791721855 0.16703410266519492 0.9826153301248732 0 0 0
-0.41092584516714287 0.18970839531523165 0.9374802454474969 0 0 0
-0.1459682594423675 0.0934639549536214 0.6760691967278325 0 0 0
-0.09119705364423002 0.03784508300311362 0.7180750251614244 0 0 0
0.04482539902262628 0.1314201375846401 0.7636713465999724 0 0 0
-0.06754235270135722 0.13791782678053477 0.6533623067289156 0 0 0
-0.08283644561239564 0.15577050302435463 0.6480413799802999 0 0 0
0.19195678343660286 0.5882292544864812 0.21407287677853107 0 0 0
0.28359449429620387 0.7366559060376059 0.24210146965871604 0 0 0
0.2361100486604171 0.7832848392441075 0.3124235001768606 0 0 0
0.2937327286178621 0.7683123348385038 0.34123117811328996 0 0 0
0.37618488742026945 0.7993965124738291 0.45975544468953833 0 0 0
0.4413992202988085 0.8200882228760333 0.4984218512038458 0 0 0
0.44175780284994626 0.8212853691504416 0.5009233599039578 0 0 0
0.6126824731245131 0.8119309835592009 0.47504252200514396 0 0 0
0.7293241653812641 0.744334854287372 0.5552591173807955 0 0 0
0.7655536298808874 0.7530180228555937 0.5903340519683682 0 0 0
0.8421614460284756 0.6307896524169972 0.6074476234285918 0 0 0
0.9397880678805203 0.6345486361856318 0.5930621548627237 0 0 0
0.9903496706739691 0.6727835824515445 0.6183132772451984 0 0 0
0.9885166670346166 0.6532545744931775 0.6514028953434685 0 0 0
0.9360941521722121 0.7679035949907337 0.761144903419184 0 0 0
0.8533792801769403 0.7474389179457434 0.7646206513788758 0 0 0
0.6089070116371674 0.825270973076769 0.6900525023540431 0 0 0
0.3709498926854196 0.9453456217871241 0.6114698024065617 0 0 0
0.33516398808827313 0.8950946002646765 0.39359935165695387 0 0 0
0.4140703484250366 0.8190229440291351 -0.034612071509218384 0 0 0
0.3157788698933984 0.6977499998639588 0.17582792447133416 0 0 0
0.18063365577834656 0.6701596798541973 0.1512223314451058 0 0 0
0.15952043638102878 0.6876512546191823 0.13715512968311877 0 0 0
0.07503346799554363 0.6582029378273906 0.12457739630022542 0 0 0
0.09337923098156439 0.7267394047934184 0.09373196100581369 0 0 0
0.11869395353733991 0.7114635052687743 0.09673155656957766 0 0 0
-0.019291057499824286 0.9340948048761651 0.08891729908051038 0 0 0
-0.13258126164104173 0.8507979910440943 -0.024877259507092353 0 0 0
-0.08044154488355759 0.7955116769678916 -0.012473579285913416 0 0 0
-0.0826031637274653 0.793226069841474 -0.013779170663481454 0 0 0
-0.038272074734909865 0.7667065806328351 -0.0890161360938593 0 0 0
0.17506540982532762 0.6582155336767175 -0.1527026208317554 0 0 0
0.1849286180900723 0.6736315416237726 -0.2532142470750611 0 0 0
0.23478549615785016 0.7290684801408964 -0.23085824805167277 0 0 0
0.26518847058628614 0.6997138526913619 -0.23663908738614658 0 0 0
0.34860735813424326 0.7649674258754527 -0.2656179093960864 0 0 0
0.33046587116204695 0.772445514658174 -0.15025989591660072 0 0 0
0.4472945686557672 0.7289103124805283 -0.12308616540698036 0 0 0
0.48345962370341344 0.726235908193856 -0.16518986253420453 0 0 0
0.5463690452795209 0.7187603617634241 -0.19702131377377463 0 0 0
0.594017108408867 0.7109561877933745 -0.09824813261455856 0 0 0
0.6197654951928719 0.7304163715163419 -0.1015149380702704 0 0 0
0.6393296620057164 0.7364679649593004 -0.004085313222419826 0 0 0
0.6014197605118107 0.6872805695229348 -0.08031584979797263 0 0 0
0.5883702133437593 0.6471246259357684 -0.12109151108971708 0 0 0
0.5641875125549132 0.5940180492751007 -0.045610622219773786 0 0 0
0.5204285847800373 0.51269986126548 0.037636874722738384 0 0 0
0.56358410189227 0.45246430456598724 -0.15619133250576886 0 0 0
0.6030607605249962 0.49031884898384503 -0.11002654162552594 0 0 0
0.6848733646253403 0.5193774255742485 -0.07855529794376745 0 0 0
0.8030743191046136 0.4066050102025377 -0.07980192204748855 0 0 0
0.7605007845045385 0.3721817946593672 0.07696425848862315 0 0 0
0.7620791805034575 0.3428102617030643 0.08578103547234547 0 0 0
0.7304206214798559 0.2936238929885273 -0.015304471085272553 0 0 0
0.7946454031557184 0.2353510931026335 -0.02112204502605644 0 0 0
0.9757055837028915 -0.3366201267219099 0.594552790985662 0 0 0
0.952561595065315 -0.2732080225483309 0.6691867306955079 0 0 0
0.9838890530359907 -0.29946873436733407 0.6647261483948423 0 0 0
1.0356941037822525 -0.30394842261177984 0.6724797566357069 0 0 0
1.0551613883773734 -0.23453877787373634 0.7886949149457325 0 0 0
0.8123817540674964 -0.4530735901457634 0.9786583053342452 0 0 0
0.7706301504818855 -0.33606138297185423 0.8751372590659664 0 0 0
0.7320839591589834 -0.3730549458296437 0.8776142809304808 0 0 0
0.7217723571107229 -0.3633771855315868 0.8625437717348801 0 0 0
0.6856575576286092 -0.4148068468820172 0.8450091148965443 0 0 0
0.2477182778212206 -0.6777743057051288 0.6380321811132079 0 0 0
0.18944913244389383 -0.7699403984076187 0.6942949465757242 0 0 0
0.21346555195898848 -0.7320329550993562 0.7393019186699403 0 0 0
0.17795975169457928 -0.7040777474853388 0.719308847266194 0 0 0
0.17631771208696023 -0.575081395492306 0.6857973375121744 0 0 0
-0.2154141601166463 -0.5564715991557397 0.7401338888407796 0 0 0
-0.2641911779713901 -0.46596574664725254 0.9014478196408761 0 0 0
-0.38808321226972725 -0.5123261154339356 0.8030242379049357 0 0 0
-0.3910663182430658 -0.5077788525078475 0.8078156388297888 0 0 0
-0.39473131085459706 -0.5048195415412576 0.8152700849634305 0 0 0
-0.8844667999151681 -0.6200428860335157 0.9065096943913002 0 0 0
-0.9043899068264645 -0.656082951212877 0.9890269683004453 0 0 0
-0.9432833577472933 -0.6232879227306348 1.019244286774824 0 0 0
-1.019687566694154 -0.7103999347723506 1.0369726406234845 0 0 0
-1.012981907027065 -0.7791411086410172 1.0520126400507548 0 0 0
