-0.127 0.724 -1.297 0 0 0
-0.124 0.724 -1.297 0 0 0
-0.121 0.7250000000000001 -1.298 0 0 0
-0.118 0.726 -1.298 0 0 0
-0.116 0.7270000000000001 -1.297 0 0 0
-0.117 0.7290000000000001 -1.289 0 0 0
-0.125 0.7250000000000001 -1.274 0 0 0
-0.146 0.7170000000000001 -1.26 0 0 0
-0.174 0.7130000000000001 -1.248 0 0 0
-0.205 0.706 -1.236 0 0 0
-0.237 0.702 -1.224 0 0 0
-0.267 0.698 -1.218 0 0 0
-0.296 0.6970000000000001 -1.215 0 0 0
-0.322 0.6950000000000001 -1.215 0 0 0
-0.355 0.6890000000000001 -1.216 0 0 0
-0.385 0.685 -1.22 0 0 0
-0.405 0.681 -1.223 0 0 0
-0.418 0.679 -1.221 0 0 0
-0.424 0.6779999999999999 -1.207 0 0 0
-0.422 0.6819999999999999 -1.18 0 0 0
-0.418 0.694 -1.136 0 0 0
-0.416 0.7010000000000001 -1.096 0 0 0
-0.422 0.708 -1.068 0 0 0
-0.443 0.714 -1.048 0 0 0
-0.477 0.72 -1.031 0 0 0
-0.523 0.7170000000000001 -1.016 0 0 0
-0.585 0.7110000000000001 -1.009 0 0 0
-0.661 0.7070000000000001 -1.005 0 0 0
-0.726 0.708 -1.0 0 0 0
-0.774 0.7110000000000001 -0.991 0 0 0
-0.809 0.7090000000000001 -0.975 0 0 0
-0.83 0.7070000000000001 -0.955 0 0 0
-0.836 0.708 -0.931 0 0 0
-0.83 0.7090000000000001 -0.904 0 0 0
-0.817 0.7110000000000001 -0.882 0 0 0
-0.806 0.7130000000000001 -0.863 0 0 0
-0.801 0.716 -0.845 0 0 0
-0.8 0.7150000000000001 -0.822 0 0 0
-0.798 0.712 -0.801 0 0 0
-0.796 0.71 -0.781 0 0 0
-0.796 0.7070000000000001 -0.755 0 0 0
-0.802 0.704 -0.716 0 0 0
-0.817 0.6990000000000001 -0.661 0 0 0
-0.835 0.6990000000000001 -0.596 0 0 0
-0.858 0.7030000000000001 -0.534 0 0 0
-0.874 0.702 -0.477 0 0 0
-0.884 0.6990000000000001 -0.427 0 0 0
-0.891 0.694 -0.383 0 0 0
-0.895 0.687 -0.345 0 0 0
-0.898 0.6819999999999999 -0.314 0 0 0
-0.897 0.675 -0.289 0 0 0
-0.894 0.6679999999999999 -0.269 0 0 0
-0.891 0.661 -0.254 0 0 0
-0.888 0.6579999999999999 -0.244 0 0 0
-0.883 0.6539999999999999 -0.236 0 0 0
-0.875 0.651 -0.231 0 0 0
-0.861 0.647 -0.228 0 0 0
-0.843 0.6419999999999999 -0.229 0 0 0
-0.817 0.6319999999999999 -0.23 0 0 0
-0.789 0.6160000000000001 -0.23 0 0 0
-0.762 0.599 -0.233 0 0 0
-0.737 0.5760000000000001 -0.236 0 0 0
-0.712 0.5549999999999999 -0.237 0 0 0
-0.685 0.536 -0.238 0 0 0
-0.661 0.5229999999999999 -0.241 0 0 0
-0.64 0.5129999999999999 -0.245 0 0 0
-0.626 0.506 -0.25 0 0 0
-0.615 0.504 -0.258 0 0 0
-0.605 0.5029999999999999 -0.266 0 0 0
-0.598 0.504 -0.27 0 0 0
-0.594 0.5029999999999999 -0.271 0 0 0
-0.592 0.502 -0.268 0 0 0
-0.591 0.5 -0.267 0 0 0
-0.588 0.5 -0.269 0 0 0
-0.586 0.4990000000000001 -0.273 0 0 0
-0.582 0.4950000000000001 -0.279 0 0 0
-0.574 0.4870000000000001 -0.288 0 0 0
-0.563 0.48 -0.297 0 0 0
-0.551 0.4770000000000001 -0.309 0 0 0
-0.538 0.4770000000000001 -0.323 0 0 0
-0.524 0.4810000000000001 -0.341 0 0 0
-0.511 0.49 -0.36 0 0 0
-0.499 0.498 -0.377 0 0 0
-0.49 0.5049999999999999 -0.392 0 0 0
-0.482 0.51 -0.405 0 0 0
-0.474 0.512 -0.418 0 0 0
-0.464 0.5129999999999999 -0.433 0 0 0
-0.455 0.514 -0.45 0 0 0
-0.45 0.506 -0.475 0 0 0
-0.448 0.5089999999999999 -0.506 0 0 0
-0.454 0.524 -0.533 0 0 0
-0.469 0.5509999999999999 -0.55 0 0 0
-0.504 0.5760000000000001 -0.557 0 0 0
-0.548 0.609 -0.551 0 0 0
-0.588 0.6339999999999999 -0.548 0 0 0
-0.61 0.655 -0.553 0 0 0
-0.611 0.671 -0.565 0 0 0
-0.597 0.6779999999999999 -0.588 0 0 0
-0.567 0.679 -0.621 0 0 0
-0.52 0.681 -0.659 0 0 0
-0.473 0.6819999999999999 -0.693 0 0 0
-0.438 0.6819999999999999 -0.716 0 0 0
-0.41 0.681 -0.728 0 0 0
-0.388 0.677 -0.732 0 0 0
-0.367 0.6719999999999999 -0.73 0 0 0
-0.347 0.665 -0.722 0 0 0
-0.322 0.657 -0.706 0 0 0
-0.29 0.6439999999999999 -0.68 0 0 0
-0.252 0.6319999999999999 -0.645 0 0 0
-0.211 0.621 -0.605 0 0 0
-0.174 0.609 -0.565 0 0 0
-0.142 0.593 -0.528 0 0 0
-0.115 0.577 -0.497 0 0 0
-0.096 0.5609999999999999 -0.469 0 0 0
-0.084 0.546 -0.443 0 0 0
-0.074 0.5329999999999999 -0.423 0 0 0
-0.067 0.522 -0.404 0 0 0
-0.061 0.5089999999999999 -0.39 0 0 0
-0.058 0.4990000000000001 -0.378 0 0 0
-0.056 0.4930000000000001 -0.37 0 0 0
-0.057 0.4910000000000001 -0.365 0 0 0
-0.058 0.4870000000000001 -0.363 0 0 0
-0.058 0.4830000000000001 -0.361 0 0 0
-0.058 0.478 -0.361 0 0 0
-0.056 0.476 -0.361 0 0 0
-0.059 0.4770000000000001 -0.36 0 0 0
-0.065 0.4790000000000001 -0.359 0 0 0
-0.071 0.48 -0.357 0 0 0
-0.071 0.4770000000000001 -0.358 0 0 0
-0.067 0.4710000000000001 -0.359 0 0 0
-0.063 0.46799999999999997 -0.361 0 0 0
-0.056 0.46599999999999997 -0.364 0 0 0
-0.05 0.46599999999999997 -0.368 0 0 0
-0.044 0.4670000000000001 -0.37 0 0 0
